ply
format ascii 1.0
comment PCL generated
element vertex 701
property float x
property float y
property float z
element camera 1
property float view_px
property float view_py
property float view_pz
property float x_axisx
property float x_axisy
property float x_axisz
property float y_axisx
property float y_axisy
property float y_axisz
property float z_axisx
property float z_axisy
property float z_axisz
property float focal
property float scalex
property float scaley
property float centerx
property float centery
property int viewportx
property int viewporty
property float k1
property float k2
end_header
-375.52905 55.497204 -104.5514
-373.46625 41.556099 -103.48455
-374.08044 41.686653 -101.18812
-382.24765 43.422642 -100.9268
-382.84631 43.549896 -98.575333
-382.48206 43.472469 -95.977173
-384.00131 43.795399 -93.861351
-383.6059 43.711346 -91.267952
-382.24048 43.421124 -88.457977
-381.80997 43.329613 -85.887688
-380.40704 43.031414 -83.113022
-380.89886 43.135948 -80.773438
-383.29294 43.644829 -78.833015
-386.63708 44.355644 -77.060677
-387.09244 44.452438 -74.682121
-387.53354 44.546192 -72.300758
-387.96033 44.636909 -69.916664
-388.37277 44.724583 -67.529945
-388.7709 44.809208 -65.140686
-388.18896 44.685513 -62.590107
-391.45746 45.380249 -60.660484
-391.8143 45.4561 -58.251999
-391.18826 45.323032 -55.700665
-381.82285 43.332352 -51.948154
-356.56937 37.964558 -15.328958
-356.72711 37.998085 -10.950905
-356.78625 38.010658 -8.761219
-360.60419 32.401836 -104.44489
-378.86496 35.95137 -104.81812
-381.38461 36.441143 -103.01368
-381.99805 36.560379 -100.67194
-385.44952 37.231281 -99.073189
-384.1347 36.975708 -96.220154
-384.70715 37.086979 -93.861351
-385.26541 37.195488 -91.499008
-386.76584 37.487144 -89.358315
-387.29691 37.590374 -86.983192
-388.77274 37.877247 -84.817909
-391.19711 38.348495 -82.844551
-391.68884 38.444084 -80.441856
-392.16614 38.536858 -78.036125
-390.70105 38.252075 -75.249329
-388.25195 37.776016 -72.300758
-388.68024 37.859268 -69.916664
-389.09418 37.939732 -67.529945
-389.49374 38.017395 -65.140686
-389.87888 38.092262 -62.748966
-390.24963 38.164326 -60.354889
-392.54794 38.611073 -58.251999
-389.00409 37.922215 -55.278687
-386.41174 37.418316 -52.486477
-386.72073 37.478378 -50.114262
-386.0412 37.346291 -47.617752
-386.58627 37.45224 -42.876438
-370.24042 34.274929 -38.73325
-370.46689 34.318947 -36.462376
-386.31921 37.40033 -35.660675
-386.52686 37.440693 -33.289356
-350.52597 30.442829 -8.5894299
-360.4191 32.36586 -4.4177537
-361.36731 32.550171 6.6448293
-390.51907 31.288263 -105.36082
-391.1485 31.399248 -102.96573
-394.62488 32.012226 -101.31354
-388.54269 30.939777 -97.19207
-396.77676 32.391663 -96.705627
-389.68851 31.141813 -92.423241
-393.11838 31.746593 -90.708817
-392.69836 31.672529 -88.078697
-393.2233 31.765095 -85.670349
-393.7337 31.855091 -83.258774
-394.22952 31.942516 -80.844063
-392.77896 31.686745 -78.036125
-393.24323 31.768608 -75.627464
-395.62927 32.189331 -73.582031
-396.06659 32.266441 -71.155693
-396.48923 32.340961 -68.726677
-397.8685 32.584167 -66.459984
-397.29044 32.482235 -63.860973
-398.64221 32.720592 -61.577267
-395.11032 32.097824 -58.54546
-395.45676 32.158913 -56.122639
-390.90933 31.357077 -53.024799
-396.10571 32.273342 -51.270744
-386.63419 30.603252 -47.617752
-386.91476 30.652727 -45.247948
-367.30029 27.19417 -33.822495
-377.30966 28.959087 -32.431385
-391.95917 24.619022 -105.62162
-392.59198 24.719252 -103.22059
-393.21027 24.817177 -100.81568
-393.81393 24.91279 -98.406975
-394.40302 25.006092 -95.99456
-394.01651 24.944874 -93.347473
-394.57492 25.033316 -90.933899
-395.11868 25.119442 -88.516899
-395.6478 25.203245 -86.096573
-400.02731 25.896894 -84.501442
-400.53201 25.976828 -82.05069
-401.02182 26.054409 -79.596855
-401.49677 26.129633 -77.140015
-390.97079 24.462479 -62.748966
-391.34381 24.521561 -60.354889
-394.63333 25.042568 -58.398727
-395.95779 25.252342 -56.122639
-396.29056 25.30505 -53.697704
-396.60864 25.355427 -51.270744
-368.90118 20.966997 -31.659208
-380.22729 16.073841 -104.81812
-384.68112 16.699785 -103.53526
-392.96359 17.863813 -103.22059
-393.5835 17.950932 -100.81568
-394.18875 18.035995 -98.406975
-394.77936 18.119001 -95.99456
-395.35532 18.199945 -93.578537
-393.98685 18.00762 -90.708817
-389.69965 17.405094 -87.202293
-395.05988 18.158424 -85.883461
-395.57437 18.230732 -83.465881
-396.07419 18.300976 -81.045166
-392.67432 17.823154 -77.841042
-398.97443 18.708578 -76.572807
-401.37936 19.04657 -74.497238
-401.82455 19.109138 -72.040718
-401.27914 19.032484 -69.41053
-397.58401 18.513168 -61.271671
-399.90802 18.839787 -59.132381
-378.53671 9.2006025 -104.28469
-379.16479 9.2777195 -101.9705
-390.33621 10.649397 -102.45599
-390.95291 10.72512 -100.0689
-393.48068 11.035489 -98.163994
-392.14267 10.871202 -95.283493
-392.71567 10.941557 -92.885361
-392.30698 10.891375 -90.258652
-369.02615 -4.8557301 -101.61756
-344.70752 -117.55525 22.259428
-344.56781 -117.52299 24.482143
-344.41479 -117.48767 26.703938
-344.2485 -117.44928 28.924725
-342.12738 -116.95958 30.97283
-344.84634 -117.5873 33.454861
-344.63968 -117.53959 35.678238
-349.26511 -118.60745 38.420883
-349.02866 -118.55286 40.671993
-351.68204 -119.16545 43.270531
-352.38361 -119.32742 45.659184
-342.23645 -123.46183 -6.6632361
-342.28934 -123.47502 -2.2211902
-342.29593 -123.47667 0
-344.22989 -123.95885 2.2334621
-347.12061 -124.6796 4.5036545
-344.1767 -123.94559 6.7000499
-344.13016 -123.93399 8.9330072
-343.10049 -123.67726 11.134953
-343.02756 -123.65908 13.361022
-342.94141 -123.6376 15.586587
-341.87286 -123.37118 17.762499
-343.69812 -123.82627 20.091068
-343.57187 -123.79479 22.320747
-338.59192 -122.55315 24.212368
-337.47357 -122.27431 26.336113
-338.27747 -122.47475 28.605995
-338.10062 -122.43066 30.801235
-341.77545 -123.34689 33.362949
-346.39835 -124.49951 36.070309
-346.17688 -124.4443 38.316761
-346.90646 -124.6262 40.671993
-351.47617 -125.76556 43.503166
-351.21039 -125.69929 45.781593
-351.89328 -125.86955 48.18679
-351.59961 -125.79633 50.467766
-351.29236 -125.71973 52.746841
-340.52026 -129.54735 -20.035873
-340.63242 -129.57741 -17.811565
-337.83627 -128.82819 -15.457772
-335.99081 -128.33369 -13.176986
-335.09695 -128.09418 -10.950905
-335.15536 -128.10983 -8.761219
-337.13232 -128.63956 -6.608016
-337.16495 -128.6483 -4.4054823
-342.97998 -130.20644 -2.2395978
-345.8844 -130.98466 0
-345.87772 -130.98286 2.2580056
-342.96008 -130.2011 4.4791117
-338.09808 -128.89833 6.6264229
-338.05228 -128.88605 8.8348427
-337.99335 -128.87027 11.042929
-344.67825 -130.66148 13.508251
-349.41672 -131.93114 15.973032
-349.31528 -131.90396 18.253176
-349.20035 -131.87317 20.532631
-349.0719 -131.83875 22.811314
-348.92993 -131.80072 25.089138
-346.84787 -131.24283 27.218889
-346.67984 -131.1978 29.482502
-346.49841 -131.14919 31.745005
-346.30356 -131.09697 34.006313
-346.09531 -131.04118 36.266342
-345.87366 -130.9818 38.525005
-345.63864 -130.91881 40.782215
-345.39026 -130.85226 43.037895
-343.21118 -130.26837 45.047127
-344.85339 -130.7084 47.5443
-346.47919 -131.14404 50.064022
-349.04474 -131.83148 52.746841
-330.12469 -133.15282 -26.115419
-330.27231 -133.19514 -23.942591
-327.52878 -132.40845 -21.5849
-333.40851 -134.09444 -19.759897
-336.3989 -134.9519 -17.71343
-336.49686 -134.98 -15.50071
-336.58176 -135.00435 -13.287408
-336.65359 -135.02495 -11.073604
-333.82947 -134.21513 -8.7857599
-333.87482 -134.22813 -6.5896091
-331.9848 -133.68619 -4.3686676
-332.00415 -133.69173 -2.184375
-333.93311 -134.24486 0
-332.00415 -133.69173 2.184375
-334.86838 -134.51305 4.4054823
-335.797 -134.77931 6.6264229
-334.79044 -134.49069 8.8103008
-335.69278 -134.74944 11.042929
-336.58176 -135.00435 13.287408
-354.74399 -140.21228 16.316538
-354.64087 -140.18271 18.645716
-354.52402 -140.1492 20.974194
-354.39343 -140.11177 23.30188
-351.37192 -139.24536 25.426357
-343.5459 -137.00128 27.145325
-343.37912 -136.95346 29.402819
-343.19904 -136.90182 31.659208
-343.00568 -136.84637 33.914406
-342.79898 -136.78711 36.168324
-348.31522 -138.36887 39.045612
-348.07819 -138.30089 41.333328
-347.82764 -138.22905 43.619488
-347.56363 -138.15335 45.904003
-347.28613 -138.07378 48.18679
-346.99521 -137.99036 50.467766
-354.30444 -140.08624 53.872105
-353.97983 -139.99316 56.197773
-324.88943 -138.01926 -25.894726
-325.03506 -138.06378 -23.740259
-323.25903 -137.5208 -21.462257
-325.28836 -138.14124 -19.428726
-320.71396 -136.74269 -14.899575
-320.79514 -136.76752 -12.772106
-325.64313 -138.24968 -10.797531
-326.65616 -138.5594 -8.6630535
-328.61292 -139.15765 -6.534389
-328.64487 -139.16742 -4.3563962
-329.62033 -139.46564 -2.184375
-329.62674 -139.46761 0
-330.57663 -139.75801 2.1905107
-330.55734 -139.75212 4.380939
-331.48135 -140.03461 6.5896091
-330.48022 -139.72853 8.761219
-339.02509 -142.34096 11.226978
-345.64221 -144.36403 13.729095
-350.33206 -145.79785 16.230661
-353.09549 -146.64272 18.694784
-353.93378 -146.89902 21.084583
-353.80319 -146.85909 23.42452
-352.70474 -146.52325 25.696133
-352.54712 -146.47507 28.028099
-352.37582 -146.4227 30.359009
-350.28531 -145.78355 32.517181
-345.32642 -144.26747 34.373951
-344.16629 -143.9128 36.560394
-342.99399 -143.55438 38.73325
-342.76004 -143.48286 41.002663
-340.61316 -142.82649 43.037895
-342.25226 -143.32761 45.53677
-342.92679 -143.53383 47.929794
-346.42929 -144.60466 50.736927
-346.12485 -144.51158 53.028156
-345.80698 -144.4144 55.31739
-345.47568 -144.31311 57.604538
-385.17334 -164.0545 -96.335915
-387.79718 -164.90704 -83.498657
-383.60739 -163.5457 -79.976044
-384.06668 -163.69493 -77.425873
-331.11603 -146.49022 -24.347256
-322.70825 -143.75838 -21.5849
-322.82794 -143.79726 -19.428726
-322.93503 -143.83205 -17.271822
-324.92987 -144.48022 -15.200143
-325.01224 -144.50699 -13.029757
-325.08194 -144.52963 -10.85888
-327.04053 -145.16602 -8.7366772
-323.28156 -143.94464 -6.4791689
-323.31305 -143.95488 -4.3195815
-327.13611 -145.19707 -2.184375
-327.14249 -145.19914 0
-326.18509 -144.88806 2.1782391
-326.16602 -144.88187 4.3563962
-326.13425 -144.87154 6.534389
-326.08975 -144.85709 8.7121363
-333.63742 -147.30948 11.134953
-342.11966 -150.06552 13.692286
-343.93347 -150.65486 16.058908
-347.63269 -151.85681 18.547581
-354.16495 -153.97928 21.25017
-354.03406 -153.93674 23.608484
-355.7872 -154.50636 26.100798
-353.73102 -153.83827 28.322357
-347.87067 -151.93413 30.199644
-347.68768 -151.87468 32.517181
-347.49115 -151.81082 34.833496
-347.28113 -151.74258 37.148495
-342.32816 -150.13326 38.94149
-341.14899 -149.75012 41.112885
-340.90244 -149.67001 43.386848
-341.58652 -149.89229 45.781593
-340.36954 -149.49687 47.929794
-340.08322 -149.40384 50.198605
-342.60846 -150.22433 52.887497
-342.29318 -150.1219 55.170658
-347.60388 -151.84746 58.368526
-388.33829 -172.84756 -95.089935
-389.80621 -173.35301 -92.702988
-390.33649 -173.5356 -90.093452
-389.92538 -173.39404 -87.279411
-390.42419 -173.5658 -84.669197
-389.97937 -173.41263 -81.86673
-389.51721 -173.25349 -79.073235
-389.03781 -173.08842 -76.288818
-387.60965 -172.59668 -73.342651
-389.89279 -173.38281 -71.077553
-329.30429 -152.52052 -26.630371
-325.67889 -151.2722 -24.144922
-323.92514 -150.66833 -21.830183
-321.21323 -149.73456 -19.483921
-321.32001 -149.77132 -17.320889
-321.41422 -149.80376 -15.157205
-323.38562 -150.48256 -13.066565
-327.23541 -151.80815 -11.012255
-328.23816 -152.15343 -8.8348427
-335.84586 -154.77296 -6.7736764
-328.31503 -152.1799 -4.4177537
-328.33426 -152.18652 -2.2089186
-328.34067 -152.18872 0
-331.17075 -153.16321 2.2273262
-324.53323 -150.87772 4.3686676
-331.11908 -153.1454 6.681643
-332.96432 -153.78078 8.9575481
-336.68616 -155.0623 11.319002
-336.61392 -155.03743 13.581865
-337.47321 -155.33331 15.887156
-342.09634 -156.92519 18.400377
-344.22354 -157.65764 30.119961
-344.04211 -157.59517 32.431385
-343.84726 -157.52806 34.741585
-343.63898 -157.45636 37.05048
-339.65582 -156.08484 38.94149
-335.66425 -154.71043 40.782215
-335.42111 -154.62671 43.037895
-338.91852 -155.83096 45.781593
-333.0202 -153.80002 47.287304
-332.73938 -153.70332 49.5257
-337.12616 -155.21381 52.465523
-336.81519 -155.10674 54.730469
-336.49112 -154.99515 56.993351
-382.51196 -178.59755 -94.432632
-384.88522 -179.46133 -92.276772
-383.57114 -178.98306 -89.264999
-380.39639 -177.82755 -85.871681
-386.41394 -180.01775 -84.474106
-388.73898 -180.864 -82.244865
-389.20563 -181.03384 -79.622353
-389.65717 -181.19818 -76.996834
-390.09354 -181.35701 -74.368423
-392.36841 -182.185 -72.067032
-328.74966 -159.02968 -22.320747
-326.99542 -158.39117 -19.980679
-327.10425 -158.43079 -17.762499
-316.87317 -154.70699 -15.071328
-320.71008 -156.1035 -13.066565
-320.77914 -156.12865 -10.889555
-320.83566 -156.14922 -8.7121363
-320.87961 -156.16521 -6.534389
-321.85065 -156.51863 -4.3686676
-321.86954 -156.52551 -2.184375
-323.75522 -157.21184 0
-323.74887 -157.20953 2.1966467
-323.72989 -157.20262 4.3932109
-331.21448 -159.92679 6.7368631
-334.92682 -161.27797 9.0802546
-337.68567 -162.2821 11.441702
-337.6131 -162.25569 13.729095
-334.71088 -161.19937 15.887156
-334.61273 -161.16365 18.155039
-336.37802 -161.80617 20.532631
-336.25305 -161.76068 22.811314
-337.99008 -162.3929 25.224026
-337.83804 -162.33757 27.513147
-337.67279 -162.27742 29.801231
-344.04797 -164.59779 32.688774
-349.46707 -166.57019 35.568768
-345.5145 -165.13158 37.540565
-345.29129 -165.05034 39.878586
-345.05463 -164.96419 42.215107
-342.00455 -163.85405 44.20108
-340.81039 -163.41942 46.393646
-340.53625 -163.31963 48.700783
-336.5242 -161.85938 50.467766
-336.22665 -161.75107 52.746841
-335.91595 -161.63799 55.02393
-343.95007 -164.56216 58.674118
-377.51495 -184.54677 -93.994431
-378.04602 -184.75064 -91.424324
-375.82236 -183.89705 -88.229446
-379.06396 -185.14139 -86.273888
-382.2977 -186.38271 -84.279022
-384.60651 -187.26898 -82.055801
-383.23346 -186.74191 -79.073235
-383.67896 -186.91292 -76.46582
-384.1095 -187.07819 -73.855537
-384.52509 -187.23772 -71.24247
-381.2388 -185.97623 -67.991287
-323.24915 -163.71609 -19.925484
-321.49203 -163.0416 -17.615295
-319.72122 -162.36185 -15.328958
-319.80276 -162.39314 -13.140179
-319.87177 -162.41963 -10.950905
-319.92822 -162.4413 -8.761219
-319.97214 -162.45816 -6.5712028
-321.87051 -163.18689 -4.4054823
-323.75656 -163.91087 -2.2150543
-323.76291 -163.9133 0
-324.69012 -164.26923 2.2211902
-324.67105 -164.2619 4.442297
-324.63925 -164.24969 6.6632361
-325.52802 -164.59087 8.9084663
-326.40375 -164.92702 11.165628
-326.3334 -164.90002 13.397829
-327.18298 -165.22614 15.672463
-327.08679 -165.18922 17.9097
-340.02798 -170.15688 20.918997
-344.56061 -171.89679 23.547163
-346.28192 -172.55754 26.033354
-348.91916 -173.56989 28.616615
-350.60965 -174.2188 31.155834
-350.42432 -174.14766 33.546749
-350.22531 -174.07127 35.936401
-345.36719 -172.20641 37.834618
-337.71567 -169.26926 39.357979
-335.62781 -168.4678 41.44355
-335.38385 -168.37416 43.735806
-336.05331 -168.63115 46.148823
-335.78238 -168.52715 48.443787
-335.49829 -168.41809 50.736927
-335.20111 -168.30402 53.028156
-334.89078 -168.18489 55.31739
-335.48996 -168.4149 57.757336
-336.07428 -168.63919 60.207237
-380.56924 -193.66574 -95.528137
-381.10529 -193.88232 -92.9161
-381.62646 -194.09288 -90.30056
-383.94922 -195.03134 -88.083832
-384.44287 -195.23079 -85.449562
-379.45874 -193.21706 -81.677666
-386.29663 -195.97975 -80.354507
-380.35843 -193.58057 -76.46582
-379.8725 -193.38425 -73.68457
-381.19879 -193.92009 -71.24247
-380.68124 -193.71098 -68.467857
-321.14847 -169.65819 -22.198107
-314.78806 -167.08842 -19.594313
-313.96729 -166.75681 -17.369957
-314.05994 -166.79424 -15.200143
-315.06677 -167.20103 -13.066565
-316.06168 -167.603 -10.92023
-316.11758 -167.62558 -8.7366772
-316.1611 -167.64316 -6.5527959
-316.19217 -167.6557 -4.3686676
-322.70096 -170.28543 -2.2273262
-316.21701 -167.66576 0
-322.70096 -170.28543 2.2273262
-324.53619 -171.02692 4.4791117
-324.50433 -171.01404 6.7184563
-323.53284 -170.62154 8.9330072
-324.4024 -170.97287 11.196303
-324.33234 -170.94456 13.434636
-324.24954 -170.9111 15.672463
-332.48862 -174.23991 18.351311
-337.00656 -176.06528 20.918997
-343.35901 -178.63184 23.669804
-349.46439 -181.09856 41.023922
-341.85187 -178.0229 42.545773
-330.55246 -173.45764 43.503166
-330.29846 -173.35503 45.781593
-330.03152 -173.24718 48.058292
-326.99542 -172.02051 49.929443
-330.3768 -173.38667 52.746841
-330.07025 -173.26282 55.02393
-329.75073 -173.13373 57.298943
-331.24911 -173.73911 59.889519
-331.81638 -173.96831 62.337158
-373.53879 -198.75314 -94.651733
-374.0661 -198.97697 -92.06366
-377.2804 -200.34137 -90.093452
-377.78189 -200.55423 -87.480515
-378.26862 -200.76083 -84.864288
-374.22104 -199.04274 -81.299522
-374.67291 -199.23454 -78.707153
-375.11011 -199.42014 -76.111816
-373.71878 -198.82954 -73.171692
-375.03265 -199.38725 -70.747726
-375.4249 -199.55376 -68.150146
-321.1225 -176.50375 -17.9097
-318.45837 -175.37289 -15.543649
-318.53992 -175.4075 -13.324215
-318.60889 -175.43678 -11.104279
-318.66534 -175.46075 -8.8839245
-318.70926 -175.47939 -6.6632361
-316.89975 -174.71129 -4.4177537
-316.91846 -174.71924 -2.2089186
-316.92468 -174.72189 0
-316.91846 -174.71924 2.2089186
-322.42236 -177.05551 4.4913831
-323.311 -177.43271 6.75527
-323.26648 -177.41382 9.0066309
-326.88953 -178.95171 11.380352
-325.89896 -178.53123 13.618672
-325.81564 -178.49586 15.887156
-326.63889 -178.84532 18.204107
-335.72067 -182.7003 21.029388
-335.59531 -182.64708 23.363201
-343.72244 -186.09685 26.303129
-337.14105 -183.30322 28.175228
-343.39835 -185.95927 31.076151
-352.38718 -189.77483 34.318924
-352.18643 -189.68961 36.763584
-346.67422 -187.34982 45.945858
-342.7536 -185.68561 47.862576
-336.08643 -182.85556 49.343273
-330.32834 -180.41139 50.87151
-330.03452 -180.28668 53.168816
-328.8172 -179.76996 55.31739
-328.49829 -179.63458 57.604538
-339.98108 -184.50874 61.954678
-341.44031 -185.12814 64.645943
-373.21417 -206.66721 -92.702988
-375.51398 -207.69115 -90.507675
-377.80374 -208.7106 -88.284935
-378.2912 -208.92764 -85.644653
-377.86679 -208.73868 -82.812073
-378.32361 -208.94206 -80.171471
-378.76559 -209.13885 -77.527847
-379.19275 -209.32904 -74.88131
-379.60507 -209.5126 -72.231949
-311.69839 -179.27861 -15.371896
-309.95255 -178.50131 -13.103372
-310.0199 -178.53128 -10.92023
-310.07498 -178.55582 -8.7366772
-312.858 -179.79489 -6.608016
-312.88885 -179.80864 -4.4054823
-312.90738 -179.81689 -2.2027826
-313.82712 -180.22638 0
-318.38855 -182.25726 2.2395978
-315.6293 -181.02876 4.442297
-318.33835 -182.23491 6.7184563
-318.2944 -182.21535 8.9575481
-318.23792 -182.1902 11.196303
-319.08182 -182.56592 13.471443
-323.56354 -184.56131 15.930094
-324.38031 -184.92496 18.253176
-327.00806 -186.09491 20.698217
-327.79742 -186.44635 23.056597
-327.66171 -186.38594 25.358913
-329.33527 -187.13106 27.807405
-330.08356 -187.4642 30.199644
-331.72812 -188.19643 32.688774
-345.18356 -194.18716 36.395947
-339.51788 -191.66464 38.226685
-344.74841 -193.99342 41.232166
-345.41849 -194.29176 43.758217
-344.25906 -193.77556 46.06218
-338.55405 -191.23552 47.740162
-340.99771 -192.3235 50.499756
-336.18176 -190.17931 52.217316
-333.16907 -188.83797 54.153423
-331.05164 -187.89523 56.197773
-328.02167 -186.5462 58.062931
-327.68973 -186.39841 60.366093
-327.34491 -186.24489 62.666985
-335.98816 -190.09311 66.67514
-379.81198 -217.93422 -92.371674
-375.87927 -216.10036 -88.687141
-374.58731 -215.49791 -85.644653
-373.27631 -214.88658 -82.623009
-375.51044 -215.92838 -80.354507
-375.94992 -216.13332 -77.704849
-379.05356 -217.58057 -75.565155
-321.48422 -190.73555 -4.5650125
-321.50327 -190.74442 -2.2825491
-321.50961 -190.74738 0
-320.59698 -190.32181 2.2764132
-319.67175 -189.89037 4.5404692
-320.54636 -190.2982 6.828897
-320.50204 -190.27754 9.1047955
-326.78625 -193.20792 11.595076
-326.71533 -193.17484 13.91313
-330.25339 -194.82468 16.402414
-330.15567 -194.7791 18.743851
-336.37943 -197.68127 21.470949
-340.48087 -199.59381 28.984438
-340.31296 -199.51553 31.39488
-343.74353 -201.11523 34.147331
-345.35184 -201.86519 36.763584
-343.3367 -200.92552 39.010822
-335.90195 -197.45863 40.607437
-333.86795 -196.51016 42.766216
-329.12277 -194.29745 44.550037
-328.86853 -194.17889 46.883289
-333.09531 -196.14987 49.857265
-328.32117 -193.92366 51.544411
-334.30914 -196.7159 54.856712
-333.9975 -196.57057 57.224884
-333.67267 -196.41911 59.5909
-329.75552 -194.59251 61.319244
-332.98361 -196.09779 64.316116
-332.61938 -195.92795 66.67514
-332.24207 -195.752 69.031647
-369.28683 -221.2795 -93.555428
-369.79553 -221.5276 -90.921898
-323.51804 -198.95656 2.3193643
-319.00519 -196.75551 4.5772839
-316.27771 -195.42523 6.8104901
-316.23392 -195.40385 9.0802546
-321.56781 -198.00537 11.533726
-321.49783 -197.97124 13.839516
-322.31311 -198.36888 16.187723
-322.21747 -198.32224 18.498512
-323.0065 -198.70708 20.863802
-321.98795 -198.2103 23.117918
-321.8541 -198.145 25.426357
-322.60385 -198.5107 27.807405
-326.92383 -200.61768 30.518373
-326.74905 -200.53242 32.860371
-334.61627 -204.36954 36.028313
-337.09439 -205.57819 38.71677
-339.55594 -206.77876 41.440411
-339.32071 -206.66403 43.868439
-339.07208 -206.54277 46.294815
-338.81009 -206.41499 48.719448
-332.29532 -203.23752 50.24276
-325.77734 -200.0585 51.678993
-325.4859 -199.91635 54.012764
-321.62534 -198.03343 55.75758
-324.86444 -199.61325 58.674118
-324.53442 -199.45229 61.001526
-324.19159 -199.28508 63.326637
-329.14932 -201.70312 66.67514
-319.94577 -204.54657 6.9577441
-319.90137 -204.52397 9.2765846
-319.84433 -204.49489 11.595076
-319.7746 -204.45937 13.91313
-319.6922 -204.41737 16.230661
-315.14746 -202.10172 18.302242
-322.15833 -205.67393 21.029388
-322.03699 -205.61211 23.363201
-321.90289 -205.54378 25.696133
-319.09024 -204.11067 27.807405
-321.59641 -205.38763 30.359009
-321.42407 -205.29982 32.688774
-322.12622 -205.65758 35.109222
-322.81461 -206.00833 37.540565
-322.60297 -205.9005 39.878586
-327.45114 -208.37076 45.247948
-328.96588 -209.14256 47.862576
-328.69772 -209.00592 50.24276
-328.41653 -208.86266 52.621056
-326.35806 -207.8138 54.716057
-327.81519 -208.55624 57.371616
-327.49503 -208.39313 59.743698
-327.16193 -208.2234 62.113533
-326.81586 -208.04707 64.481033
-328.21265 -208.75877 67.188019
-323.55225 -213.94087 26.100798
-321.64331 -212.92587 28.322357
-320.60333 -212.37291 30.598057
-320.43121 -212.28139 32.946167
-319.36716 -211.71562 35.20113
-320.92749 -212.54527 37.736599
-318.96039 -211.49934 39.878586
-324.00342 -214.18076 42.876438
-323.76471 -214.05383 45.247948
-325.26575 -214.85196 47.862576
-325 -214.71066 50.24276
-327.3461 -215.9581 53.024799
-327.92651 -216.26671 55.560005
-326.74561 -215.63881 57.811806
-326.42593 -215.46884 60.202091
-324.34982 -214.36496 62.272392
-318.42038 -218.8074 33.117764
-317.36539 -218.22261 35.384949
-317.16919 -218.11386 37.736599
0 0 0 1 0 0 0 1 0 0 0 1 0 0 0 0 0 701 1 0 0
