ply
format ascii 1.0
comment PCL generated
element vertex 1484
property float x
property float y
property float z
element camera 0
property float view_px
property float view_py
property float view_pz
property float x_axisx
property float x_axisy
property float x_axisz
property float y_axisx
property float y_axisy
property float y_axisz
property float z_axisx
property float z_axisy
property float z_axisz
property float focal
property float scalex
property float scaley
property float centerx
property float centery
property int viewportx
property int viewporty
property float k1
property float k2
end_header
-283.58786 48.010914 -126.43529
-286.9545 49.040195 -125.88162
-292.96164 50.87677 -126.47144
-293.69846 51.102032 -124.65876
-294.42459 51.324036 -122.84138
-297.79727 52.355167 -122.1504
-308.27591 55.558807 -124.39126
-313.45068 57.1409 -124.30842
-323.09665 60.089966 -125.96326
-329.19583 61.95467 -126.08221
-336.20432 64.097382 -126.47598
-344.12762 66.519775 -127.12713
-352.07053 68.948166 -127.68125
-359.12982 71.106415 -127.80704
-362.58609 72.163094 -126.5457
-365.13437 72.942184 -124.92529
-382.20541 78.161331 -128.29584
-392.95972 81.449249 -129.29684
-399.18112 83.351318 -128.65454
-418.19684 89.165009 -132.0833
-426.28522 91.637878 -131.78925
-192.07896 16.586678 -110.2749
-197.72672 18.206142 -112.10123
-203.40266 19.833696 -113.85948
-204.07059 20.025221 -112.62408
-205.57335 20.456131 -111.86664
-207.9194 21.128851 -111.57102
-211.11702 22.045753 -111.72102
-218.57637 24.184685 -114.16424
-220.95232 24.865976 -113.75306
-222.47523 25.302668 -112.86073
-226.5714 26.477226 -113.30206
-231.5419 27.902493 -114.13939
-235.6664 29.085171 -114.47884
-242.40239 31.016687 -116.06915
-255.2482 34.700165 -120.57053
-280.35605 41.899727 -130.82008
-281.12256 42.119522 -129.09317
-284.50806 43.090294 -128.59392
-285.26135 43.306301 -126.84053
-286.88547 43.772007 -125.482
-287.62039 43.982738 -123.7135
-291.00229 44.952488 -123.10538
-291.72311 45.159176 -121.31065
-297.7753 46.894619 -121.77339
-319.90903 53.24136 -128.84706
-327.82086 55.51004 -129.79262
-330.37411 56.242176 -128.48253
-335.6207 57.746605 -128.2072
-340.87589 59.25351 -127.86966
-343.42999 59.985889 -126.4418
-345.97964 60.716988 -124.98614
-351.24573 62.227009 -124.49597
-364.69925 66.084755 -126.87102
-369.08441 67.342171 -125.8838
-381.68582 70.955566 -127.66846
-383.34644 71.43174 -125.60265
-389.57849 73.218758 -125.03046
-393.98135 74.481255 -123.79107
-394.70428 74.688553 -121.339
-391.72647 73.834679 -117.74472
-368.40991 67.148766 -108.06564
-369.04056 67.329597 -105.77708
-369.65768 67.506561 -103.48455
-191.50465 13.008298 -109.77137
-196.33932 14.303746 -111.10477
-199.51562 15.154834 -111.39499
-202.7023 16.008701 -111.64899
-210.13014 17.998983 -114.27756
-210.80367 18.179455 -113.00142
-214.02524 19.042669 -113.13522
-215.54655 19.450308 -112.30034
-221.35263 21.006041 -113.75306
-223.74306 21.646551 -113.31581
-226.99899 22.518976 -113.30206
-228.53185 22.929707 -112.3629
-231.79784 23.804825 -112.28576
-234.20042 24.448597 -111.7382
-239.22438 25.794762 -112.44699
-273.16327 34.88866 -127.02208
-280.05847 36.736221 -128.2603
-280.81354 36.938545 -126.5397
-278.90924 36.428288 -123.5986
-279.63672 36.623215 -121.88538
-286.5686 38.480606 -122.92551
-287.29193 38.674423 -121.16366
-293.35922 40.300148 -121.69333
-303.02164 42.889183 -123.65843
-312.71768 45.487232 -125.50521
-314.35489 45.925919 -123.94281
-327.70056 49.501881 -127.04295
-335.67407 51.638378 -127.85303
-336.42569 51.839775 -125.77914
-343.51715 53.739922 -126.09914
-344.25821 53.938492 -123.97546
-348.63248 55.110569 -123.17155
-360.31674 58.24136 -124.91915
-361.96579 58.683224 -123.00829
-376.44583 62.563137 -125.47269
-378.10159 63.006794 -123.44771
-378.82629 63.200981 -121.10439
-379.53711 63.391441 -118.75651
-380.23398 63.578171 -116.40415
-379.06485 63.2649 -113.47861
-372.30881 61.454628 -108.9012
-372.94742 61.625744 -106.59495
-373.57236 61.793194 -104.28469
-386.30606 65.205185 -105.36082
-192.54082 9.8731136 -110.2749
-197.40036 11.084732 -111.603
-198.90549 11.460004 -110.90209
-200.40935 11.834957 -110.18633
-203.61189 12.633441 -110.42008
-204.26562 12.796435 -109.18703
-206.62346 13.384309 -108.89265
-213.27765 15.043385 -110.9024
-218.24043 16.280746 -111.9109
-224.95076 17.953819 -113.7709
-227.35742 18.553867 -113.30206
-228.89722 18.937782 -112.3629
-229.56204 19.103542 -110.96991
-231.09314 19.485287 -110.00583
-237.88385 21.178402 -111.59188
-257.89658 26.168133 -119.42608
-258.60291 26.34424 -117.84956
-267.26144 28.503061 -119.96621
-276.84137 30.8916 -122.38287
-277.56494 31.072008 -120.68651
-285.4129 33.028725 -122.13754
-288.81729 33.877533 -121.552
-294.91431 35.39769 -122.07601
-304.62271 37.818264 -124.03544
-312.56299 39.798004 -125.1339
-320.52722 41.78371 -126.13648
-322.17761 42.195198 -124.52368
-338.33896 46.224674 -128.56136
-343.64566 47.547779 -128.21808
-344.40271 47.736538 -126.09914
-345.14716 47.922146 -123.97546
-346.79449 48.33287 -122.17823
-364.94839 52.859146 -126.22039
-367.53201 53.503323 -124.60579
-375.63773 55.5243 -124.84533
-380.0668 56.62859 -123.75555
-380.7966 56.810551 -121.40639
-381.51242 56.989021 -119.05266
-382.21417 57.163998 -116.69444
-381.97168 57.103535 -114.04742
-374.25656 55.179932 -109.17972
-374.89969 55.340286 -106.86757
-375.52905 55.497204 -104.5514
-386.44852 58.21973 -105.10003
-188.47466 5.5395513 -107.75722
-195.02927 7.0528035 -110.10831
-196.53185 7.3996987 -109.4234
-202.2868 8.7283363 -111.16144
-206.36221 9.6692181 -111.86664
-209.59674 10.415969 -112.04782
-211.98148 10.966529 -111.72102
-214.36983 11.517921 -111.36839
-217.62643 12.269771 -111.45037
-226.09746 14.22546 -114.22598
-228.51694 14.784039 -113.75166
-229.19287 14.940091 -112.3629
-231.61177 15.498539 -111.84714
-234.03276 16.057467 -111.30511
-259.35693 21.904011 -121.8532
-262.73077 22.68293 -121.53608
-273.19714 25.099277 -124.51244
-273.93658 25.269989 -122.84211
-275.55676 25.644043 -121.5724
-276.27856 25.810684 -119.88726
-284.15475 27.629042 -121.34955
-292.05823 29.453703 -122.71703
-297.28757 30.660992 -122.84138
-304.33386 32.287754 -123.65843
-315.01938 34.754704 -125.87653
-315.76617 34.927113 -123.94281
-321.04678 36.14624 -123.80389
-332.71567 38.84021 -126.08221
-337.11661 39.856251 -125.43073
-340.60648 40.661949 -124.38584
-346.84836 42.102997 -124.31236
-354.94046 43.97121 -124.82708
-359.36572 44.992863 -123.94322
-364.71661 46.228214 -123.32778
-365.44724 46.396889 -121.08115
-367.09146 46.776489 -119.13781
-374.2991 48.440502 -118.99034
-375.0036 48.603153 -116.68345
-375.69431 48.762615 -114.37216
-376.37119 48.918884 -112.05657
-371.41931 47.775654 -108.06564
-353.30933 43.594631 -100.32466
-353.90262 43.731606 -98.150291
-354.48291 43.865578 -95.972237
-359.76114 45.084152 -95.064888
-360.32291 45.21384 -92.849998
-362.76172 45.77689 -91.117569
-365.19302 46.3382 -89.357903
-365.72052 46.459988 -87.10891
-368.13333 47.017025 -85.306801
-368.63657 47.133205 -83.039368
-369.12625 47.246258 -80.768814
-369.60236 47.356174 -78.495209
-370.06485 47.462948 -76.218658
-366.69113 46.684063 -73.158875
-367.12177 46.783485 -70.900749
-354.12817 43.78368 -66.0774
-354.51672 43.873383 -63.898525
-375.05276 48.614498 -65.307442
-376.39734 48.924919 -63.161724
-375.80603 48.788406 -60.683811
-376.1619 48.870567 -58.368526
-367.82953 46.946888 -54.730469
-365.25592 46.352722 -52.043549
-353.00879 43.525246 -48.045315
-353.28955 43.590065 -45.873825
-353.55731 43.651882 -43.700611
-346.07004 41.923309 -40.595203
-358.896 44.884418 -39.90044
-362.03519 45.609154 -38.004395
-362.25574 45.660072 -35.776257
-362.46295 45.707916 -33.546768
-362.65686 45.752682 -31.316019
-351.18216 43.103539 -28.127901
-351.34387 43.140873 -25.96829
-348.5762 42.501907 -23.605371
-348.71094 42.533009 -21.462257
-348.83282 42.561153 -19.318335
-348.94193 42.586338 -17.173685
-349.03818 42.608562 -15.02839
-356.91132 44.426216 -13.176986
-356.98352 44.442886 -10.98158
-357.0426 44.456532 -8.7857599
-357.08856 44.46714 -6.5896091
-357.1214 44.47472 -4.3932109
-360.06415 45.15411 -2.2150543
-360.07077 45.15564 0
-360.06415 45.15411 2.2150543
-359.07001 44.924591 4.4177537
-359.03699 44.916965 6.6264229
-358.99075 44.906296 8.8348427
-358.93134 44.892578 11.042929
-386.12259 51.170174 14.281202
-514.52832 80.814972 22.327894
-514.38531 80.781952 25.51519
-514.22327 80.744537 28.701527
-371.07928 47.697147 22.872635
-368.99139 47.215122 25.021694
-368.83502 47.17902 27.292454
-370.6076 47.588253 29.72155
-372.36462 47.993896 32.173992
-377.98691 49.291901 35.017311
-381.64929 50.137432 37.736599
-193.61319 3.3271513 -110.77844
-194.27455 3.46773 -109.61008
-200.03534 4.6922231 -111.39499
-201.55431 5.015089 -110.67389
-206.49953 6.0662284 -111.86664
-207.16719 6.2081437 -110.61742
-207.82735 6.3484626 -109.36404
-214.53819 7.7748976 -111.36839
-220.41216 9.0234489 -112.83199
-222.82733 9.5368099 -112.40565
-227.86644 10.607906 -113.30206
-229.4187 10.937849 -112.3629
-235.36313 12.201375 -113.60161
-247.50214 14.781601 -117.80152
-263.23663 18.126072 -123.56342
-272.84128 20.167601 -126.17808
-273.59357 20.327507 -124.51244
-274.33588 20.485287 -122.84211
-275.06812 20.640932 -121.16715
-275.79031 20.794439 -119.48763
-280.99756 21.901272 -119.77358
-284.41541 22.627756 -119.22193
-296.87372 25.275852 -122.4587
-298.50922 25.623489 -121.01938
-300.13828 25.969759 -119.56413
-314.50677 29.02388 -123.21158
-320.71613 30.343716 -123.444
-337.9166 33.999786 -127.85303
-341.42828 34.74622 -126.8244
-343.10211 35.102001 -125.07116
-344.76743 35.455975 -123.30169
-347.34705 36.004292 -121.84712
-353.62161 37.337994 -121.66605
-355.27219 37.688835 -119.81326
-355.98474 37.840294 -117.63065
-356.68417 37.988964 -115.44362
-357.37048 38.134842 -113.25223
-358.04361 38.27792 -111.05658
-358.70358 38.418194 -108.85675
-359.35031 38.55566 -106.65282
-365.62045 39.888424 -106.116
-372.83826 41.422619 -105.77708
-373.46625 41.556099 -103.48455
-374.08044 41.686653 -101.18812
-382.24765 43.422642 -100.9268
-382.84631 43.549896 -98.575333
-382.48206 43.472469 -95.977173
-384.00131 43.795399 -93.861351
-383.6059 43.711346 -91.267952
-382.24048 43.421124 -88.457977
-381.80997 43.329613 -85.887688
-380.40704 43.031414 -83.113022
-380.89886 43.135948 -80.773438
-383.29294 43.644829 -78.833015
-386.63708 44.355644 -77.060677
-387.09244 44.452438 -74.682121
-387.53354 44.546192 -72.300758
-387.96033 44.636909 -69.916664
-388.37277 44.724583 -67.529945
-388.7709 44.809208 -65.140686
-388.18896 44.685513 -62.590107
-391.45746 45.380249 -60.660484
-391.8143 45.4561 -58.251999
-391.18826 45.323032 -55.700665
-381.82285 43.332352 -51.948154
-379.2175 42.778564 -49.214775
-374.65192 41.808121 -46.271236
-353.54953 37.322674 -41.409431
-375.17969 41.920303 -41.663994
-375.42282 41.971985 -39.357979
-362.02399 39.123974 -35.678238
-378.78958 42.687611 -35.017311
-378.99277 42.730801 -32.688774
-377.2319 42.356514 -30.199644
-377.40619 42.393562 -27.88097
-377.56656 42.42765 -25.561245
-376.73672 42.251259 -23.179239
-375.89224 42.071758 -20.808607
-372.10233 41.266186 -18.302242
-356.56937 37.964558 -15.328958
-339.06009 34.242844 -12.477649
-356.72711 37.998085 -10.950905
-356.78625 38.010658 -8.761219
-346.07446 35.733795 -6.3687286
-346.10632 35.740566 -4.2459521
-391.11938 45.308388 -2.4052668
-346.13181 35.745983 0
-380.35995 43.0214 2.3377721
-380.3389 43.01693 4.675456
-366.61209 40.099201 6.75527
-353.85269 37.387112 8.6875954
-366.50397 40.076221 11.257653
-366.42966 40.060425 13.508251
-403.47714 47.935116 17.389994
-403.36533 47.911346 19.872408
-415.93515 50.583141 23.071611
-414.81268 50.344555 25.570747
-414.65155 50.310307 28.124115
-414.4751 50.2728 30.676422
-416.2334 50.646538 33.38694
-414.07623 50.188019 35.777481
-412.87985 49.93372 38.234127
-416.5365 50.710964 41.167198
-420.17307 51.483936 44.147572
-191.94557 -0.38207898 -109.77137
-197.70996 0.73840415 -111.603
-199.23267 1.0343897 -110.90209
-201.61113 1.4967175 -110.67389
-205.71397 2.2942288 -111.38445
-208.96971 2.9270792 -111.57102
-213.10078 3.7300797 -112.19242
-218.9839 4.873642 -113.69827
-220.53607 5.1753521 -112.83199
-224.70801 5.9862952 -113.31581
-226.26324 6.2886019 -112.40283
-231.33366 7.2741914 -113.25114
-233.77589 7.7489133 -112.72437
-236.22017 8.2240305 -112.1713
-240.44099 9.0444775 -112.44699
-258.02274 12.46202 -119.00407
-268.55188 14.508681 -122.01386
-269.28186 14.650576 -120.37705
-279.87354 16.709385 -123.19336
-282.4101 17.20244 -122.285
-290.35925 18.747604 -123.7135
-291.09906 18.891409 -121.94035
-295.45581 19.738274 -121.69333
-298.00174 20.233152 -120.64237
-307.83737 22.145008 -122.53468
-308.56976 22.287369 -120.65229
-315.70175 23.673687 -121.28463
-327.44247 25.955853 -123.60307
-335.54187 27.530214 -124.38547
-338.12927 28.033154 -123.0152
-341.63672 28.714931 -121.95412
-355.33255 31.377134 -124.49597
-356.07587 31.521618 -122.31667
-356.80603 31.663548 -120.13277
-357.52301 31.802917 -117.94434
-354.491 31.213552 -114.52007
-355.17422 31.346359 -112.34621
-355.84436 31.476618 -110.16813
-356.50134 31.604324 -107.9859
-358.08627 31.912403 -106.08401
-360.60419 32.401836 -104.44489
-375.39331 35.276546 -106.32233
-378.86496 35.95137 -104.81812
-381.38461 36.441143 -103.01368
-381.99805 36.560379 -100.67194
-385.44952 37.231281 -99.073189
-384.1347 36.975708 -96.220154
-384.70715 37.086979 -93.861351
-385.26541 37.195488 -91.499008
-386.76584 37.487144 -89.358315
-387.29691 37.590374 -86.983192
-388.77274 37.877247 -84.817909
-391.19711 38.348495 -82.844551
-391.68884 38.444084 -80.441856
-392.16614 38.536858 -78.036125
-390.70105 38.252075 -75.249329
-388.25195 37.776016 -72.300758
-388.68024 37.859268 -69.916664
-389.09418 37.939732 -67.529945
-389.49374 38.017395 -65.140686
-389.87888 38.092262 -62.748966
-390.24963 38.164326 -60.354889
-392.54794 38.611073 -58.251999
-389.00409 37.922215 -55.278687
-386.41174 37.418316 -52.486477
-386.72073 37.478378 -50.114262
-386.0412 37.346291 -47.617752
-358.04691 31.904753 -41.874706
-386.58627 37.45224 -42.876438
-370.24042 34.274929 -38.73325
-370.46689 34.318947 -36.462376
-386.31921 37.40033 -35.660675
-386.52686 37.440693 -33.289356
-386.72021 37.478279 -30.916786
-386.89929 37.513088 -28.543051
-388.04346 37.735489 -26.235685
-388.19431 37.764812 -23.853765
-388.33081 37.791344 -21.470949
-350.21561 30.3825 -17.173685
-341.48608 28.685654 -14.641946
-337.64413 27.938852 -12.404034
-341.63727 28.715042 -10.460108
-350.52597 30.442829 -8.5894299
-341.7381 28.734638 -6.2766948
-360.4191 32.36586 -4.4177537
-407.56381 41.529865 0
-393.81375 38.857124 2.4175386
-393.79193 38.852879 4.8349862
-361.36731 32.550171 6.6448293
-351.50729 30.633581 8.6139708
-361.26059 32.529427 11.073604
-361.18723 32.515167 13.287408
-411.11734 42.220596 17.690561
-411.00317 42.198406 20.215881
-410.87381 42.17326 22.74044
-410.72925 42.145161 25.264143
-410.56946 42.114101 27.786896
-411.37347 42.270386 30.382164
-411.18286 42.233337 32.908848
-410.97705 42.193329 35.434292
-410.75601 42.150364 37.958401
-410.51978 42.104446 40.481079
-416.12613 43.194206 43.626965
-193.61136 -3.4318783 -110.77844
-197.69273 -2.7122228 -111.603
-200.07724 -2.2917683 -111.39499
-205.04587 -1.4156646 -112.62408
-212.62477 -0.079300746 -115.24192
-216.77989 0.65335888 -115.86221
-218.34457 0.92925411 -115.02081
-220.77832 1.3583905 -114.63022
-225.83774 2.2505007 -115.59521
-228.28595 2.6821871 -115.13615
-231.61646 3.2694468 -115.1005
-234.07245 3.702503 -114.58351
-234.76054 3.8238344 -113.16299
-236.32771 4.1001678 -112.1713
-256.58682 7.6723952 -120.14298
-260.87939 8.4292908 -120.27008
-270.5549 10.135345 -122.84672
-271.29227 10.26536 -121.19874
-275.62091 11.02862 -121.16715
-280.86179 11.952726 -121.48576
-281.59073 12.081257 -119.77358
-290.47693 13.648133 -121.552
-295.75528 14.578853 -121.69333
-301.0459 15.511728 -121.77339
-307.26257 16.607899 -122.16336
-320.82788 18.999826 -125.40526
-323.41739 19.456425 -124.16379
-332.45047 21.049204 -125.37389
-334.12503 21.344473 -123.68863
-342.26776 22.780256 -124.38584
-352.28546 24.546648 -125.65991
-359.54309 25.826361 -125.8204
-360.29672 25.959249 -123.61791
-361.03705 26.089787 -121.41077
-358.95871 25.72332 -118.25802
-359.66666 25.848152 -116.05931
-360.36133 25.970638 -113.85624
-368.56769 27.417645 -114.01809
-370.19226 27.704098 -112.04989
-374.63904 28.488186 -110.91894
-384.76074 30.272917 -111.40788
-389.21686 31.058647 -110.13903
-389.87518 31.174728 -107.75195
-390.51907 31.288263 -105.36082
-391.1485 31.399248 -102.96573
-394.62488 32.012226 -101.31354
-388.54269 30.939777 -97.19207
-396.77676 32.391663 -96.705627
-389.68851 31.141813 -92.423241
-393.11838 31.746593 -90.708817
-392.69836 31.672529 -88.078697
-393.2233 31.765095 -85.670349
-393.7337 31.855091 -83.258774
-394.22952 31.942516 -80.844063
-392.77896 31.686745 -78.036125
-393.24323 31.768608 -75.627464
-395.62927 32.189331 -73.582031
-396.06659 32.266441 -71.155693
-396.48923 32.340961 -68.726677
-397.8685 32.584167 -66.459984
-397.29044 32.482235 -63.860973
-398.64221 32.720592 -61.577267
-395.11032 32.097824 -58.54546
-395.45676 32.158913 -56.122639
-390.90933 31.357077 -53.024799
-396.10571 32.273342 -51.270744
-386.63419 30.603252 -47.617752
-386.91476 30.652727 -45.247948
-356.83798 25.34938 -39.459549
-357.06982 25.390261 -37.275543
-357.28848 25.428814 -35.090137
-367.30029 27.19417 -33.822495
-377.30966 28.959087 -32.431385
-394.18713 31.935045 -31.474564
-396.33432 32.313648 -29.205132
-394.53833 31.996965 -26.640348
-392.72607 31.67742 -24.099049
-392.86444 31.701815 -21.69173
-352.65976 24.612644 -17.271822
-352.7576 24.629898 -15.114266
-351.85828 24.471323 -12.919335
-351.92984 24.483942 -10.766856
-351.9884 24.494267 -8.6139708
-360.89572 26.064867 -6.6264229
-360.92908 26.070749 -4.4177537
-401.32547 33.193722 -2.4604897
-360.95578 26.075457 0
-368.82742 27.46344 2.2580056
-368.80695 27.459831 4.5159259
-368.77283 27.453815 6.7736764
-351.9884 24.494267 8.6139708
-368.6637 27.43457 11.288327
-368.58865 27.421341 13.545058
-407.85599 34.345226 17.518808
-407.74255 34.32523 20.019611
-408.59735 34.475952 22.574856
-410.41925 34.797207 25.202822
-416.15475 35.808529 28.124115
-416.95923 35.950378 30.749987
-420.69241 36.608639 33.625988
-421.46259 36.744442 36.292263
-421.23547 36.704395 38.877487
-420.99274 36.661594 41.46125
-420.73441 36.616043 44.043449
-196.93532 -6.2697191 -112.79259
-201.04077 -5.6194797 -113.59591
-205.16302 -4.966579 -114.35238
-208.43932 -4.4476643 -114.57429
-209.99515 -4.2012453 -113.79537
-213.28552 -3.6801026 -113.95502
-215.71434 -3.2954142 -113.60661
-216.39888 -3.1869934 -112.30034
-222.33577 -2.2466836 -113.75306
-227.4185 -1.4416574 -114.68106
-228.99156 -1.1925089 -113.75166
-230.56168 -0.94382834 -112.80702
-231.24109 -0.83621913 -111.40852
-236.36328 -0.024944205 -112.1713
-267.39597 4.8901501 -125.27364
-268.15024 5.0096159 -123.64608
-268.89462 5.1275172 -122.01386
-269.62912 5.2438493 -120.37705
-270.3537 5.3586082 -118.7357
-271.0683 5.4717894 -117.08989
-275.40408 6.1585131 -117.01563
-284.29968 7.5674376 -118.83359
-300.52719 10.137624 -123.60675
-303.10037 10.545173 -122.5274
-309.33978 11.533398 -122.90599
-320.19131 13.25211 -125.03964
-327.39371 14.392859 -125.60337
-330.91986 14.951347 -124.66556
-338.14984 16.096464 -125.08231
-339.82953 16.362499 -123.35786
-349.87036 17.95281 -124.64925
-358.0751 19.252316 -125.15818
-358.82697 19.371399 -122.96729
-359.56555 19.488379 -120.77177
-360.2908 19.603249 -118.5717
-364.7616 20.311352 -117.59856
-363.58438 20.124901 -114.76226
-366.15991 20.532825 -113.12964
-368.72906 20.939735 -111.46931
-372.23846 21.495571 -110.06572
-377.64163 22.351349 -109.17972
-382.09741 23.057074 -107.95805
-386.55222 23.76265 -106.6851
-391.95917 24.619022 -105.62162
-392.59198 24.719252 -103.22059
-393.21027 24.817177 -100.81568
-393.81393 24.91279 -98.406975
-394.40302 25.006092 -95.99456
-394.01651 24.944874 -93.347473
-394.57492 25.033316 -90.933899
-395.11868 25.119442 -88.516899
-395.6478 25.203245 -86.096573
-400.02731 25.896894 -84.501442
-400.53201 25.976828 -82.05069
-401.02182 26.054409 -79.596855
-401.49677 26.129633 -77.140015
-376.71078 22.203915 -69.921234
-376.15546 22.115959 -67.438606
-376.55716 22.179588 -65.136482
-376.94495 22.241005 -62.831898
-390.97079 24.462479 -62.748966
-391.34381 24.521561 -60.354889
-394.63333 25.042568 -58.398727
-395.95779 25.252342 -56.122639
-396.29056 25.30505 -53.697704
-396.60864 25.355427 -51.270744
-402.79355 26.335024 -49.576324
-374.638 21.875622 -43.735806
-368.02441 20.828133 -40.671993
-368.2641 20.866093 -38.420883
-368.49011 20.90189 -36.168324
-366.73547 20.623981 -33.730587
-368.90118 20.966997 -31.659208
-370.07077 21.152241 -29.482502
-377.13766 22.271526 -27.733841
-379.26962 22.609198 -25.561245
-383.36081 23.257179 -23.485842
-379.5513 22.653812 -20.918997
-384.60355 23.454008 -18.841988
-379.10617 22.583307 -4.6386414
-378.13956 22.430214 -2.3132286
-362.34357 19.928373 0
-362.33685 19.927311 2.2150543
-378.11853 22.426884 4.62637
-196.7959 -9.705759 -112.79259
-197.47765 -9.6099472 -111.603
-199.01376 -9.3940601 -110.90209
-200.54857 -9.1783571 -110.18633
-208.15475 -8.1093769 -112.831
-212.31834 -7.5242224 -113.47822
-213.00397 -7.427866 -112.19242
-215.43411 -7.086329 -111.83436
-228.4157 -5.2618866 -116.97683
-229.12227 -5.1625848 -115.59123
-229.8204 -5.0644684 -114.20128
-230.51009 -4.9675407 -112.80702
-241.87042 -3.3709495 -116.67192
-244.36003 -3.0210567 -116.06915
-260.27905 -0.78378552 -121.8532
-261.91241 -0.55423021 -120.69208
-272.54446 0.94000453 -123.67958
-273.29092 1.0449133 -122.02042
-274.02728 1.1484032 -120.35667
-287.46216 3.0365493 -124.28313
-295.49335 4.1652613 -125.68346
-296.25156 4.2718205 -123.88207
-300.65836 4.8911562 -123.60675
-301.40384 4.9959288 -121.77339
-314.09131 6.7790332 -124.76258
-317.60867 7.2733698 -123.94281
-322.97546 8.0276222 -123.80389
-333.90863 9.5641794 -125.72805
-346.73322 11.366556 -128.21808
-349.36649 11.736639 -126.78446
-351.06277 11.975034 -124.98614
-359.29099 13.131433 -125.48929
-360.98322 13.369261 -123.61791
-361.72763 13.473883 -121.41077
-361.51834 13.444469 -118.88538
-361.29184 13.412635 -116.36716
-361.99219 13.511065 -114.15825
-362.67911 13.607606 -111.94504
-363.35257 13.702255 -109.72761
-364.01257 13.79501 -107.50605
-369.41446 14.554195 -106.67304
-374.81955 15.313832 -105.77708
-380.22729 16.073841 -104.81812
-384.68112 16.699785 -103.53526
-392.96359 17.863813 -103.22059
-393.5835 17.950932 -100.81568
-394.18875 18.035995 -98.406975
-394.77936 18.119001 -95.99456
-395.35532 18.199945 -93.578537
-393.98685 18.00762 -90.708817
-389.69965 17.405094 -87.202293
-395.05988 18.158424 -85.883461
-395.57437 18.230732 -83.465881
-396.07419 18.300976 -81.045166
-392.67432 17.823154 -77.841042
-398.97443 18.708578 -76.572807
-401.37936 19.04657 -74.497238
-401.82455 19.109138 -72.040718
-401.27914 19.032484 -69.41053
-402.67014 19.227978 -67.119637
-402.0928 19.146835 -64.496407
-397.58401 18.513168 -61.271671
-399.90802 18.839787 -59.132381
-400.25989 18.889238 -56.685272
-398.63437 18.660786 -53.966866
-391.09839 17.601675 -50.499756
-371.74155 14.881249 -45.659184
-371.02853 14.781041 -43.270531
-355.53683 12.603823 -39.239105
-359.70819 13.19007 -37.483788
-359.92929 13.221142 -35.286171
-360.13699 13.250336 -33.087223
-360.33136 13.277651 -30.887032
-360.51236 13.303087 -28.685678
-368.58066 14.437012 -27.07176
-368.73831 14.459167 -24.819363
-372.83588 15.035046 -22.811314
-372.96756 15.053553 -20.532631
-373.08539 15.070113 -18.253176
-373.18939 15.084726 -15.973032
-190.59381 -13.875886 -109.26783
-192.97693 -13.583276 -109.11186
-197.0923 -13.077972 -109.9163
-202.9576 -12.357803 -111.64899
-207.11198 -11.84771 -112.34882
-214.77208 -10.907168 -114.90862
-215.46793 -10.821729 -113.60661
-216.15584 -10.737264 -112.30034
-220.35988 -10.221073 -112.83199
-225.46204 -9.5946074 -113.7709
-228.81046 -9.1834726 -113.75166
-231.27757 -8.8805485 -113.25114
-232.855 -8.6868658 -112.28576
-241.5862 -7.6148076 -114.76986
-274.58176 -3.5634646 -128.69408
-275.36041 -3.4678545 -127.02208
-276.88718 -3.2803938 -123.6638
-277.63516 -3.1885507 -121.97764
-279.28275 -2.9862549 -120.68651
-287.31067 -2.0005491 -122.13754
-288.04919 -1.9098712 -120.38696
-299.78094 -0.46939299 -123.22407
-301.44513 -0.26505482 -121.77339
-304.94592 0.16478738 -121.04941
-321.38257 2.1829541 -125.40526
-326.77054 2.8445129 -125.24347
-331.24008 3.3933029 -124.66556
-340.36633 4.5138655 -125.77914
-345.7883 5.1796002 -125.41383
-347.48019 5.3873386 -123.63857
-356.65576 6.5139556 -124.49597
-358.34589 6.7214775 -122.64198
-360.02664 6.9278498 -120.77177
-360.75546 7.0173383 -118.5717
-361.47089 7.1051803 -116.36716
-363.11905 7.3075504 -114.46026
-368.5495 7.9743242 -113.72194
-372.08466 8.4083862 -112.34017
-370.8588 8.2578688 -109.4969
-371.51874 8.3389015 -107.23008
-374.07477 8.6527433 -105.50446
-378.53671 9.2006025 -104.28469
-379.16479 9.2777195 -101.9705
-390.33621 10.649397 -102.45599
-390.95291 10.72512 -100.0689
-393.48068 11.035489 -98.163994
-392.14267 10.871202 -95.283493
-392.71567 10.941557 -92.885361
-392.30698 10.891375 -90.258652
-383.16507 9.7688904 -85.668587
-383.67966 9.8320761 -83.326134
-380.2959 9.4166012 -80.1521
-380.77695 9.475668 -77.827492
-385.13776 10.011106 -76.280319
-382.6712 9.7082539 -73.358643
-383.11087 9.7622356 -71.019478
-383.53625 9.8144674 -68.677635
-383.94739 9.8649464 -66.333214
-384.34421 9.9136715 -63.98629
-386.68665 10.201284 -61.954678
-387.05676 10.24673 -59.5909
-387.41248 10.290406 -57.224884
-384.80573 9.9703398 -54.434738
-385.1301 10.010165 -52.082733
-385.44012 10.048232 -49.728767
-376.87006 8.9959621 -46.271236
-195.47806 -16.658236 -112.28906
-196.15967 -16.586594 -111.10477
-201.16064 -16.06097 -112.38079
-205.31595 -15.62423 -113.11164
-206.0024 -15.552082 -111.86664
-211.05222 -15.021324 -113.00142
-217.00043 -14.396143 -114.54941
-219.45532 -14.138123 -114.16424
-220.14793 -14.065327 -112.83199
-227.91695 -13.248769 -115.13615
-232.16866 -12.801898 -115.55011
-232.86948 -12.728238 -114.13939
-233.56168 -12.655485 -112.72437
-237.83087 -12.206775 -113.03748
-249.30469 -11.000827 -116.72254
-263.53677 -9.5049744 -121.53608
-264.27353 -9.4275379 -119.93172
-265.00049 -9.3511314 -118.32283
-265.71762 -9.2757587 -116.7095
-271.89484 -8.6265087 -117.48952
-277.17712 -8.0713158 -117.80362
-282.47318 -7.5146785 -118.05689
-300.6459 -5.6046486 -123.60675
-304.15802 -5.2355113 -122.90442
-306.74918 -4.9631672 -121.79204
-312.11505 -4.3991938 -121.74913
-326.77042 -2.8588526 -125.24347
-330.31879 -2.4859035 -124.31139
-339.46106 -1.5250118 -125.43073
-344.89172 -0.95422655 -125.07116
-350.33044 -0.38259307 -124.64925
-358.59195 0.48572728 -125.15818
-363.11075 0.96067023 -124.26853
-363.8623 1.0396621 -122.04977
-365.54462 1.2164823 -120.14011
-361.53983 0.79556125 -116.36716
-368.87979 1.5670218 -116.27229
-370.53235 1.7407131 -114.31424
-374.07812 2.1133885 -112.92074
-374.76022 2.1850805 -110.63453
-375.42838 2.2553048 -108.34416
-361.72977 0.81552273 -101.96039
-362.34521 0.88020951 -99.750572
-362.94717 0.94347769 -97.537003
-360.65057 0.70209533 -94.555161
-367.96335 1.4707016 -94.094635
-368.5307 1.5303311 -91.846504
-362.32104 0.87766892 -87.93576
-361.88327 0.83165956 -85.491501
-362.39822 0.88578326 -83.281044
-362.89969 0.93848825 -81.067459
-364.35931 1.0918998 -79.063927
-369.69977 1.6532061 -77.873878
-372.11652 1.9072145 -76.017555
-191.71481 -20.368462 -110.2749
-197.56781 -19.85639 -112.10123
-205.18358 -19.190096 -114.84528
-210.23064 -18.748537 -116.03694
-212.68149 -18.534115 -115.72411
-213.38492 -18.472572 -114.43182
-214.08043 -18.411724 -113.13522
-218.29373 -18.043108 -113.69827
-219.86893 -17.905296 -112.83199
-224.98984 -17.457273 -113.7709
-229.24039 -17.085398 -114.20128
-229.9342 -17.024698 -112.80702
-230.61946 -16.964745 -111.40852
-234.88785 -16.591311 -111.7382
-239.16869 -16.216785 -112.01943
-254.2993 -14.893027 -117.31608
-261.35162 -14.276029 -118.68243
-270.24637 -13.497842 -120.7879
-276.44403 -12.955615 -121.5724
-277.18201 -12.89105 -119.88726
-290.7283 -11.705904 -123.7135
-291.4791 -11.640219 -121.94035
-297.74121 -11.092354 -122.4587
-301.25226 -10.785177 -121.77339
-302.91595 -10.639622 -120.30677
-310.13626 -10.007926 -121.0179
-319.2352 -9.2118721 -122.36431
-336.74646 -7.6798363 -126.79054
-341.25027 -7.2858028 -126.12756
-348.56607 -6.6457543 -126.4418
-352.14633 -6.3325219 -125.32303
-357.6058 -5.8548789 -124.82708
-361.18817 -5.5414624 -123.61791
-363.82501 -5.3107691 -122.04977
-368.34793 -4.9150658 -121.08115
-369.08118 -4.8509159 -118.82996
-373.59933 -4.4556265 -117.78232
-386.68192 -3.3110507 -119.34881
-387.40421 -3.2478571 -116.98473
-388.11206 -3.1859288 -114.61623
-387.84863 -3.2089756 -111.96491
-368.3981 -4.9106755 -103.86874
-369.02615 -4.8557301 -101.61756
-369.64041 -4.8019896 -99.362556
-396.24988 -2.4739623 -103.98519
-195.63948 -23.409904 -112.79259
-196.32625 -23.361881 -111.603
-198.74164 -23.19298 -111.39499
-204.6456 -22.780136 -113.11164
-205.33415 -22.731987 -111.86664
-209.52254 -22.439106 -112.52462
-212.84673 -22.206657 -112.66382
-213.53238 -22.158712 -111.36839
-216.86652 -21.925566 -111.45037
-221.09778 -21.629688 -111.95056
-228.01625 -21.145901 -113.75166
-228.70827 -21.097509 -112.3629
-233.87421 -20.736273 -113.16299
-237.25998 -20.499516 -113.03748
-251.47426 -19.505556 -118.0052
-254.00066 -19.328894 -117.31608
-268.3183 -18.327707 -122.01386
-269.06015 -18.275833 -120.37705
-269.79193 -18.224659 -118.7357
-285.14484 -17.151081 -123.48388
-286.81223 -17.034487 -122.13754
-287.55447 -16.982584 -120.38696
-288.28598 -16.931431 -118.63187
-303.79001 -15.847283 -122.90442
-311.02032 -15.34169 -123.64863
-315.48538 -15.029464 -123.21158
-317.16437 -14.912057 -121.64452
-333.76242 -13.751408 -125.72805
-338.26599 -13.436488 -125.08231
-344.64832 -12.990192 -125.07116
-347.28592 -12.805753 -123.63857
-358.39047 -12.029247 -125.15818
-360.09317 -11.910184 -123.2926
-361.78638 -11.791782 -121.41077
-366.31161 -11.475347 -120.45379
-384.12616 -10.229631 -123.75555
-386.77847 -10.044166 -122.01041
-388.47086 -9.9258213 -119.94111
-398.74384 -9.2074652 -120.46814
-399.47375 -9.1564236 -118.02913
-400.18875 -9.1064272 -115.58567
-377.85406 -10.668219 -106.59495
-378.49948 -10.623089 -104.28469
-379.13071 -10.578948 -101.9705
-403.86331 -8.8494768 -106.02412
-188.29881 -27.182455 -108.76429
-194.15691 -26.875444 -110.60654
-194.83102 -26.840115 -109.4234
-195.49788 -26.805166 -108.23614
-196.15746 -26.770599 -107.0448
-196.80971 -26.736418 -105.84943
-207.14247 -26.194901 -109.83544
-210.46237 -26.02091 -109.97045
-219.99652 -25.521248 -113.29253
-221.57584 -25.438478 -112.40565
-223.15247 -25.355852 -111.50361
-224.72629 -25.273371 -110.58641
-227.1946 -25.144012 -110.09267
-234.16574 -24.778671 -111.7382
-244.77629 -24.222595 -115.01232
-260.86746 -23.379293 -120.69208
-267.95758 -23.007715 -122.01386
-275.07339 -22.63479 -123.25295
-275.82349 -22.59548 -121.5724
-287.54834 -21.981007 -124.68275
-295.64978 -21.556429 -126.07745
-299.17755 -21.371546 -125.43545
-299.94055 -21.331558 -123.60675
-300.69235 -21.292158 -121.77339
-302.36011 -21.204754 -120.30677
-310.52756 -20.776716 -121.38351
-324.30954 -20.054434 -124.52368
-331.60379 -19.672159 -125.01972
-338.91602 -19.28894 -125.43073
-348.1218 -18.806486 -126.4418
-348.89005 -18.766224 -124.31236
-350.58755 -18.677263 -122.50933
-356.99753 -18.34133 -122.31667
-358.68661 -18.252808 -120.45226
-363.21088 -18.015701 -119.51274
-373.43768 -17.479736 -120.36921
-383.68826 -16.942528 -121.10439
-389.19229 -16.654074 -120.23726
-389.92175 -16.615843 -117.85558
-390.6366 -16.578379 -115.46946
-381.7457 -17.044333 -110.2938
-368.00232 -17.764593 -103.86874
-368.63187 -17.731598 -101.61756
-369.24762 -17.699327 -99.362556
-375.64346 -17.364138 -98.633011
-190.38608 -30.374125 -110.2749
-193.65829 -30.259857 -110.60654
-200.41983 -30.023739 -112.87369
-201.9808 -29.969229 -112.13654
-205.29126 -29.853624 -112.34882
-205.97636 -29.8297 -111.09422
-206.65376 -29.806046 -109.83544
-210.86046 -29.659143 -110.43643
-212.42082 -29.604654 -109.60822
-222.87794 -29.239483 -113.31581
-225.354 -29.153017 -112.85245
-226.04181 -29.129 -111.47466
-233.00806 -28.885733 -113.16299
-235.49922 -28.798738 -112.60439
-266.90222 -27.702122 -125.70119
-282.16473 -27.169144 -130.82008
-282.96167 -27.141314 -129.09317
-283.74799 -27.113855 -127.36138
-279.04175 -27.2782 -123.19336
-279.79196 -27.252003 -121.48576
-280.53168 -27.226171 -119.77358
-298.759 -26.589659 -125.43545
-299.52258 -26.562994 -123.60675
-300.27493 -26.53672 -121.77339
-303.79987 -26.413628 -121.04941
-310.11768 -26.193005 -121.38351
-319.24802 -25.874166 -122.72421
-321.86383 -25.782822 -121.47809
-335.71747 -25.299042 -124.38547
-342.10724 -25.075905 -124.38584
-343.80453 -25.016634 -122.62791
-352.09421 -24.727152 -123.17155
-352.84293 -24.701006 -121.01543
-353.5784 -24.675323 -118.85476
-354.3006 -24.650105 -116.68961
-355.00949 -24.625349 -114.52007
-363.3269 -24.334898 -114.76226
-367.84207 -24.177225 -113.72194
-383.83423 -23.618767 -116.11387
-188.96313 -33.707272 -109.77137
-190.49995 -33.680447 -109.11186
-197.25545 -33.562531 -111.39499
-198.80812 -33.535427 -110.67389
-200.3593 -33.50835 -109.9379
-202.78777 -33.465961 -109.66383
-205.22031 -33.423504 -109.36404
-217.38802 -33.211113 -114.16424
-218.97183 -33.183468 -113.29253
-220.55307 -33.155869 -112.40565
-223.9178 -33.097137 -112.40283
-226.39485 -33.053898 -111.91878
-228.87428 -33.01062 -111.40852
-233.15833 -32.935841 -111.7382
-239.26256 -32.829292 -112.87454
-258.98618 -32.485016 -120.27008
-266.08237 -32.361153 -121.59743
-260.44238 -32.459599 -117.0903
-261.15582 -32.447144 -115.49377
-268.27527 -32.322876 -116.69027
-273.58096 -32.230263 -117.01563
-283.50745 -32.056995 -119.22193
-286.08102 -32.012074 -118.24918
-290.5054 -31.934845 -118.00332
-299.57916 -31.776463 -119.56413
-304.02954 -31.69878 -119.18983
-309.41931 -31.604702 -119.12526
-318.55969 -31.445156 -120.4156
-323.97845 -31.350571 -120.20444
-339.73886 -31.075472 -123.70052
-349.9054 -30.898014 -124.98614
-353.49594 -30.835342 -123.83376
-364.64911 -30.640663 -125.24446
-374.88504 -30.461994 -126.2033
-384.19669 -30.299458 -126.72742
-388.77209 -30.219593 -125.60265
-398.1138 -30.056534 -125.93648
-417.02386 -29.726458 -129.12178
-428.33292 -29.529057 -129.75725
-432.95514 -29.448376 -128.26779
-188.34608 -37 -109.77137
-189.88313 -37 -109.11186
-195.76958 -37 -110.90209
-198.19257 -37 -110.67389
-200.62006 -37 -110.42008
-207.44688 -37 -112.52462
-208.13342 -37 -111.24963
-213.2361 -37 -112.30034
-216.58406 -37 -112.37144
-218.15994 -37 -111.49548
-218.83995 -37 -110.15478
-222.19963 -37 -110.14229
-225.56729 -37 -110.09267
-230.7453 -37 -110.87202
-242.26913 -37 -114.58476
-258.37976 -37 -120.27008
-267.29538 -37 -122.43029
-268.04156 -37 -120.7879
-261.46399 -37 -115.89902
-269.50363 -37 -117.48952
-277.57239 -37 -118.9856
-278.29724 -37 -117.2802
-285.47879 -37 -118.24918
-288.9776 -37 -117.62631
-303.62149 -37 -121.42072
-307.15311 -37 -120.65229
-309.7536 -37 -119.48515
-317.02722 -37 -120.06143
-326.19397 -37 -121.2497
-341.96317 -37 -124.7285
-347.42975 -37 -124.31236
-349.12958 -37 -122.50933
-363.11322 -37 -124.91915
-365.76804 -37 -123.32778
-381.71033 -37 -126.10006
-392.94266 -37 -127.1419
-401.34186 -37 -127.14451
-414.53128 -37 -128.52948
-422.01068 -37 -128.01555
-435.25137 -37 -129.12102
-186.80782 -40.26638 -109.26783
-187.47464 -40.278019 -108.1154
-190.74425 -40.335091 -108.4376
-194.02478 -40.392353 -108.72369
-200.81969 -40.510956 -110.90227
-202.37515 -40.538109 -110.14062
-203.92883 -40.565228 -109.36404
-209.01924 -40.654079 -110.43643
-215.01784 -40.758785 -111.9109
-221.04222 -40.863941 -113.31581
-221.73323 -40.876003 -111.95322
-225.10336 -40.93483 -111.91878
-227.58281 -40.978107 -111.40852
-229.16321 -41.005695 -110.43893
-230.74028 -41.033222 -109.4541
-231.40741 -41.044868 -108.03207
-257.51865 -41.500641 -118.266
-267.35501 -41.672337 -120.7879
-268.091 -41.685181 -119.14095
-268.81686 -41.697853 -117.48952
-272.28949 -41.758469 -117.01563
-274.845 -41.803074 -116.11517
-283.86581 -41.960533 -117.8665
-286.4357 -42.00539 -116.8723
-294.57422 -42.147449 -118.07887
-303.6687 -42.306194 -119.55545
-307.19498 -42.367744 -118.76537
-317.26822 -42.543575 -120.4156
-318.00098 -42.556362 -118.46235
-335.62943 -42.864071 -122.67254
-343.90689 -43.008553 -123.30169
-349.37411 -43.103985 -122.84044
-357.68484 -43.24905 -123.2926
-371.69867 -43.49366 -125.5643
-377.20892 -43.589844 -124.84533
-384.62677 -43.719322 -124.67911
-399.68182 -43.982109 -126.8425
-411.91241 -44.195595 -127.93719
-422.25748 -44.376167 -128.30583
-423.99521 -44.406502 -125.99254
-181.75938 -43.369732 -106.75014
-187.60965 -43.574028 -108.61363
-193.48947 -43.779354 -110.40919
-197.65311 -43.924751 -111.16144
-200.95763 -44.04015 -111.38445
-202.51532 -44.094543 -110.61742
-204.95258 -44.179653 -110.30684
-212.69917 -44.450172 -112.76631
-216.04794 -44.567112 -112.83199
-219.40547 -44.684361 -112.86073
-220.98608 -44.739555 -111.95322
-223.45926 -44.825924 -111.47466
-227.73111 -44.975098 -111.84714
-232.91666 -45.156181 -112.60439
-236.31308 -45.274788 -112.44699
-250.58879 -45.773308 -117.31608
-256.75513 -45.98864 -118.266
-272.05392 -46.522884 -123.25295
-272.80457 -46.549099 -121.5724
-277.20938 -46.702919 -121.48576
-279.78622 -46.792904 -120.56156
-289.72977 -47.140141 -122.71703
-290.47681 -47.166225 -120.92796
-291.21286 -47.191929 -119.13434
-299.36142 -47.476486 -120.30677
-302.88409 -47.599499 -119.55545
-304.54395 -47.657463 -118.04557
-318.34665 -48.139462 -121.12392
-326.57751 -48.426891 -121.94654
-332.01358 -48.616722 -121.64455
-336.51712 -48.773991 -120.94346
-344.79657 -49.063114 -121.51601
-357.82062 -49.517925 -123.61791
-359.51889 -49.577229 -121.73027
-370.69702 -49.967579 -122.96324
-386.65775 -50.52494 -125.60265
-393.13699 -50.751198 -125.03046
-407.2601 -51.244389 -126.75258
-422.37503 -51.772213 -128.59612
-423.15564 -51.799473 -125.99254
-184.42595 -46.716133 -108.76429
-187.68646 -46.887009 -109.11186
-188.35149 -46.92186 -107.9447
-192.49692 -47.139114 -108.72369
-194.90919 -47.265533 -108.49135
-199.9593 -47.530201 -109.66383
-207.67317 -47.934467 -112.19242
-211.89102 -48.155514 -112.76631
-212.57797 -48.191517 -111.45037
-215.03529 -48.320301 -111.0404
-215.71161 -48.355743 -109.70516
-228.01132 -49.000343 -114.13939
-232.29616 -49.224903 -114.47884
-235.69356 -49.402954 -114.33677
-243.61168 -49.817924 -116.29498
-245.22501 -49.902473 -115.20608
-269.53226 -51.176365 -124.51244
-279.39465 -51.69323 -126.95054
-280.16724 -51.733719 -125.21957
-271.77499 -51.2939 -119.48763
-275.25555 -51.476311 -118.9856
-277.81992 -51.610703 -118.05689
-278.53802 -51.648338 -116.33576
-279.24561 -51.685417 -114.61025
-292.92386 -52.402264 -118.07887
-302.00726 -52.878307 -119.55545
-303.6658 -52.965229 -118.04557
-312.78851 -53.443329 -119.35311
-321.93839 -53.922852 -120.55286
-324.54733 -54.059582 -119.24593
-333.73413 -54.541042 -120.26968
-347.65698 -55.270706 -122.84044
-355.95758 -55.705723 -123.2926
-367.11548 -56.290485 -124.60579
-376.4061 -56.777386 -125.15901
-379.06613 -56.91679 -123.44771
-393.1434 -57.654549 -125.33247
-404.39609 -58.244278 -126.16028
-419.49591 -59.035625 -128.01555
-422.18716 -59.17667 -125.99254
-181.85883 -49.807159 -107.75722
-183.37985 -49.913521 -107.11895
-190.1078 -50.383984 -109.4234
-191.64491 -50.491467 -108.72369
-200.17216 -51.087753 -111.86664
-200.85309 -51.135365 -110.61742
-204.16565 -51.367004 -110.77824
-207.48775 -51.599308 -110.9024
-208.16263 -51.6465 -109.60822
-215.04752 -52.127937 -111.49548
-215.72588 -52.175373 -110.15478
-226.22765 -52.909729 -113.69527
-227.81575 -53.020779 -112.72437
-232.99715 -53.383099 -113.47058
-239.99977 -53.872768 -115.01232
-266.02203 -55.692425 -125.33408
-266.78415 -55.745716 -123.67958
-279.35941 -56.625065 -127.36138
-268.27789 -55.85017 -120.35667
-269.00949 -55.901325 -118.68839
-273.39838 -56.208225 -118.59161
-282.39249 -56.837158 -120.38696
-283.12399 -56.888309 -118.63187
-283.84476 -56.938709 -116.8723
-295.66968 -57.765587 -119.56413
-298.2529 -57.946224 -118.45861
-311.07169 -58.842602 -121.28463
-313.67395 -59.02457 -120.06143
-327.49368 -59.99094 -122.99179
-333.86331 -60.436348 -123.0152
-344.94171 -61.211025 -124.64925
-348.522 -61.461384 -123.50266
-360.591 -62.305328 -125.24446
-362.29605 -62.424557 -123.32778
-374.41064 -63.271694 -124.84533
-381.81155 -63.789215 -124.67911
-382.56747 -63.842072 -122.31241
-395.69547 -64.760071 -123.79107
-418.4017 -66.347847 -128.01555
-424.91556 -66.803337 -127.13017
-441.97321 -67.996132 -129.23314
-180.96187 -52.973446 -107.75722
-185.93581 -53.408607 -109.11186
-186.5992 -53.466648 -107.9447
-188.99498 -53.67625 -107.74859
-194.8864 -54.191685 -109.45572
-196.42738 -54.326504 -108.71023
-200.60239 -54.691769 -109.36404
-201.26704 -54.74992 -108.10654
-204.57678 -55.039482 -108.2266
-211.44383 -55.64027 -110.13023
-212.11296 -55.698814 -108.80594
-219.91444 -56.381355 -111.03053
-229.54147 -57.22361 -114.04022
-231.13208 -57.36277 -113.03748
-234.52026 -57.659199 -112.87454
-238.81831 -58.035229 -113.09607
-240.41078 -58.174553 -112.01955
-265.61331 -60.379486 -121.60958
-266.35159 -60.444077 -119.95143
-267.07971 -60.507782 -118.28876
-271.46014 -60.891018 -118.19761
-272.17746 -60.953777 -116.50352
-277.48624 -61.418232 -116.71844
-290.1893 -62.52961 -119.88836
-296.46643 -63.078785 -120.30677
-300.90506 -63.467117 -119.92107
-304.42068 -63.774693 -119.12526
-310.73282 -64.326935 -119.35311
-313.32401 -64.553635 -118.11393
-322.46298 -65.353188 -119.24593
-330.68942 -66.072906 -119.93279
-340.81625 -66.958893 -121.18491
-351.91263 -67.929703 -122.64198
-358.31949 -68.490227 -122.36928
-372.30347 -69.713669 -124.53165
-383.48355 -70.691795 -125.60265
-384.24405 -70.758331 -123.21843
-389.74744 -71.239815 -122.31032
-409.55365 -72.972633 -125.69327
-424.64001 -74.292519 -127.41457
-425.4108 -74.359955 -124.77682
-180.0098 -56.123596 -107.75722
-183.25078 -56.464241 -108.1154
-183.90701 -56.533211 -106.95891
-189.76604 -57.149021 -108.72369
-193.03967 -57.493092 -108.97353
-200.69452 -58.297649 -111.57102
-205.75696 -58.829735 -112.66382
-211.72021 -59.456497 -114.16424
-212.41283 -59.529293 -112.83199
-220.18185 -60.345852 -115.13615
-221.76855 -60.512619 -114.20128
-223.35225 -60.679073 -113.25114
-224.03906 -60.751259 -111.84714
-229.19936 -61.293629 -112.60439
-232.57922 -61.648869 -112.44699
-235.06421 -61.910049 -111.83007
-245.68819 -63.026676 -114.93456
-250.91841 -63.576393 -115.44693
-267.98373 -65.370033 -121.16715
-268.71802 -65.447205 -119.48763
-293.65948 -68.068665 -121.77339
-294.39697 -68.146179 -119.93546
-295.12326 -68.222511 -118.09299
-302.33344 -68.980331 -118.76537
-310.49289 -69.837921 -119.70728
-312.14966 -70.012054 -118.11393
-319.40466 -70.77459 -118.56061
-327.61316 -71.637337 -119.25901
-337.7189 -72.699493 -120.5227
-358.19693 -74.851822 -125.24446
-359.89676 -75.030479 -123.32778
-361.58682 -75.208115 -121.39484
-367.99808 -75.881966 -120.98491
-383.89868 -77.553185 -123.52043
-385.59506 -77.731483 -121.42187
-404.41095 -79.709106 -124.53213
-405.16318 -79.78817 -122.01083
-434.55511 -82.877388 -127.84054
-181.57549 -59.572529 -109.26783
-183.09802 -59.759472 -108.61363
-184.61957 -59.946297 -107.9447
-192.2061 -60.877804 -110.67389
-192.87642 -60.96011 -109.45572
-196.15668 -61.362877 -109.66383
-197.69612 -61.551895 -108.89265
-205.3811 -62.495491 -111.36839
-210.46051 -63.119167 -112.37144
-212.02464 -63.311214 -111.49548
-212.69958 -63.394089 -110.15478
-219.59137 -64.240295 -111.91878
-224.72864 -64.871071 -112.72437
-228.98935 -65.394218 -113.03748
-230.57062 -65.588379 -112.01943
-236.64745 -66.334518 -113.09607
-253.57471 -68.412926 -119.09885
-264.24921 -69.723587 -122.02042
-265.71518 -69.903587 -118.68839
-264.6084 -69.767693 -116.22765
-267.14047 -70.07859 -115.33848
-280.67569 -71.740501 -119.01455
-281.39514 -71.828842 -117.24931
-287.63333 -72.594795 -117.70755
-292.04001 -73.135864 -117.36177
-298.30539 -73.905159 -117.68568
-315.72424 -76.04393 -122.18642
-318.32306 -76.363022 -120.90128
-320.91821 -76.681664 -119.58859
-330.98566 -77.917793 -120.94346
-342.01807 -79.2724 -122.50933
-348.38898 -80.054649 -122.31667
-360.41354 -81.531082 -123.96679
-363.04654 -81.854378 -122.33588
-365.67337 -82.176903 -120.67706
-378.70193 -83.776611 -122.31241
-387.0238 -84.798409 -122.31032
-411.5065 -87.804504 -127.14469
-415.12766 -88.24913 -125.42372
-431.13596 -90.214706 -127.2835
-177.08588 -62.251419 -107.25368
-185.46162 -63.428551 -110.60654
-186.99171 -63.643593 -109.9163
-188.52057 -63.858459 -109.21124
-194.38577 -64.682762 -110.90227
-196.79678 -65.021606 -110.61742
-200.08513 -65.483749 -110.77824
-202.50674 -65.824089 -110.43643
-209.32687 -66.782593 -112.37144
-210.88742 -67.001915 -111.49548
-213.32988 -67.345177 -111.054
-214.88779 -67.564133 -110.14229
-218.22269 -68.032822 -110.09267
-227.81319 -69.380676 -113.03748
-229.39082 -69.602402 -112.01943
-238.14702 -70.833 -114.36208
-252.34212 -72.827995 -119.09885
-253.96378 -73.055901 -117.91199
-258.2966 -73.664841 -117.92522
-259.00818 -73.764847 -116.29064
-266.08099 -74.758865 -117.40963
-267.70181 -74.986656 -116.11517
-273.89157 -75.856567 -116.71844
-279.18149 -76.600021 -116.8723
-279.88626 -76.699074 -115.10833
-293.48425 -78.610138 -118.45861
-294.19839 -78.71051 -116.606
-302.30994 -79.85051 -117.58229
-314.1572 -81.515533 -119.85603
-318.60074 -82.14003 -119.24593
-323.04871 -82.76516 -118.58523
-339.64807 -85.098045 -122.17823
-346.00238 -85.991081 -121.99136
-355.18228 -87.281235 -122.68878
-366.26413 -88.838684 -123.90429
-369.83652 -89.340752 -122.52415
-377.18216 -90.373116 -122.31241
-383.59323 -91.274132 -121.71802
-391.90649 -92.44249 -121.62928
-416.37241 -95.880943 -126.27695
-419.03391 -96.254997 -124.21978
-438.83588 -99.037979 -127.04155
-177.67915 -65.602821 -108.26075
-180.04454 -65.977463 -108.1154
-180.69626 -66.080681 -106.95891
-186.51503 -67.002289 -108.72369
-188.03558 -67.243118 -108.00916
-195.63203 -68.446281 -110.61742
-198.04076 -68.827782 -110.30684
-201.32712 -69.348289 -110.43643
-205.49934 -70.009109 -110.98983
-207.0475 -70.254311 -110.13023
-210.35759 -70.77858 -110.15478
-212.79097 -71.163986 -109.69817
-214.33928 -71.409218 -108.77682
-223.00662 -72.78199 -111.30511
-226.35544 -73.312393 -111.16432
-229.71107 -73.843872 -110.98607
-235.76709 -74.803047 -112.01955
-239.14287 -75.337723 -111.74934
-258.77753 -78.447548 -118.7357
-268.54608 -79.994728 -121.08614
-276.36423 -81.233002 -120.38696
-284.38852 -82.503929 -121.69333
-285.12057 -82.619873 -119.88836
-285.84164 -82.734077 -118.07887
-286.55176 -82.84655 -116.26493
-297.38742 -84.562752 -118.40546
-305.48868 -85.845863 -119.35311
-308.05771 -86.252762 -118.11393
-314.33499 -87.246979 -118.21795
-320.62512 -88.24324 -118.24834
-325.99548 -89.093819 -117.87385
-343.51495 -91.868637 -121.66605
-345.18164 -92.132614 -119.81326
-354.34167 -93.58342 -120.45379
-372.91959 -96.525871 -124.06341
-375.54749 -96.942085 -122.31241
-388.5455 -99.000771 -123.79107
-399.68506 -100.76511 -124.53213
-411.79492 -102.68312 -125.42372
-425.82767 -104.90569 -126.72646
-432.28922 -105.92909 -125.67844
-172.25293 -67.943619 -105.74306
-176.30403 -68.657944 -106.62072
-177.80173 -68.922028 -105.97311
-181.01811 -69.489159 -106.28593
-183.38235 -69.906044 -106.08043
-187.48242 -70.628998 -106.80302
-193.33528 -71.661011 -108.42125
-200.95752 -73.00502 -110.9024
-205.12038 -73.739044 -111.45037
-205.78986 -73.857086 -110.13023
-208.21065 -74.283936 -109.70516
-211.51659 -74.866867 -109.69817
-213.94539 -75.295128 -109.21545
-221.70244 -76.662903 -111.30511
-226.82201 -77.56562 -112.01943
-227.49451 -77.684204 -110.56407
-236.2164 -79.222107 -112.85241
